ply
        format ascii 1.0
        element vertex 65213
        property float x
        property float y
        property float z
        property uchar red
        property uchar green
        property uchar blue
        end_header
102.000000 -186.000000 18.530001 246 150 66
103.000000 -186.000000 17.510000 245 149 60
104.000000 -186.000000 16.490000 245 149 58
105.000000 -186.000000 16.490000 246 148 60
106.000000 -186.000000 16.490000 248 150 64
107.000000 -186.000000 17.000000 251 154 69
108.000000 -186.000000 17.510000 251 155 71
109.000000 -186.000000 17.510000 252 154 72
120.000000 -186.000000 37.230000 255 158 66
121.000000 -186.000000 37.400002 254 158 66
122.000000 -186.000000 37.230000 254 157 65
123.000000 -186.000000 37.230000 254 155 64
124.000000 -186.000000 37.230000 254 155 69
125.000000 -186.000000 37.060001 253 155 70
126.000000 -186.000000 37.230000 253 155 69
127.000000 -186.000000 36.889999 254 156 71
128.000000 -186.000000 36.889999 254 158 73
129.000000 -186.000000 36.040001 255 160 76
130.000000 -186.000000 35.529999 255 159 78
131.000000 -186.000000 35.360001 254 157 76
132.000000 -186.000000 35.020000 253 155 73
133.000000 -186.000000 34.849998 252 156 74
134.000000 -186.000000 34.849998 253 157 76
135.000000 -186.000000 35.189999 254 157 78
136.000000 -186.000000 35.360001 255 158 79
137.000000 -186.000000 35.360001 254 158 76
138.000000 -186.000000 35.360001 254 158 74
139.000000 -186.000000 35.360001 254 159 78
140.000000 -186.000000 35.020000 253 161 81
141.000000 -186.000000 33.320000 253 159 76
144.000000 -186.000000 41.820000 254 159 77
145.000000 -186.000000 41.990002 255 161 76
146.000000 -186.000000 43.350002 254 161 72
147.000000 -186.000000 43.520000 252 158 70
148.000000 -186.000000 43.860001 252 159 73
149.000000 -186.000000 43.860001 255 161 77
150.000000 -186.000000 43.860001 255 162 80
154.000000 -186.000000 30.260000 255 165 89
155.000000 -186.000000 30.430000 254 164 88
156.000000 -186.000000 30.430000 254 166 91
157.000000 -186.000000 30.940001 254 169 95
158.000000 -186.000000 31.960001 254 171 93
159.000000 -186.000000 31.960001 254 173 91
160.000000 -186.000000 31.960001 254 174 92
177.000000 -186.000000 32.470001 255 187 111
178.000000 -186.000000 32.470001 255 186 110
179.000000 -186.000000 32.470001 255 185 111
180.000000 -186.000000 32.470001 255 186 114
181.000000 -186.000000 32.470001 255 187 114
182.000000 -186.000000 32.299999 255 185 110
183.000000 -186.000000 32.299999 255 184 108
184.000000 -186.000000 32.130001 255 187 109
185.000000 -186.000000 32.130001 255 188 109
186.000000 -186.000000 31.790001 255 186 106
187.000000 -186.000000 30.770000 254 182 103
190.000000 -186.000000 30.600000 254 185 109
191.000000 -186.000000 113.900002 254 192 113
192.000000 -186.000000 113.900002 255 197 117
193.000000 -186.000000 113.900002 255 195 114
194.000000 -186.000000 113.559998 254 187 107
195.000000 -186.000000 112.540001 254 184 108
196.000000 -186.000000 112.370003 254 184 111
197.000000 -186.000000 112.540001 254 182 112
198.000000 -186.000000 25.330000 254 180 111
199.000000 -186.000000 24.650000 254 180 114
200.000000 -186.000000 24.650000 254 181 116
201.000000 -186.000000 24.650000 254 179 117
202.000000 -186.000000 24.480000 253 173 117
203.000000 -186.000000 24.480000 251 169 116
204.000000 -186.000000 24.650000 252 171 115
205.000000 -186.000000 24.990000 253 173 113
206.000000 -186.000000 25.330000 254 174 114
207.000000 -186.000000 25.160000 255 177 117
208.000000 -186.000000 24.650000 255 180 117
226.000000 -186.000000 104.720001 255 185 128
227.000000 -186.000000 104.889999 254 178 125
237.000000 -186.000000 105.400002 254 172 127
238.000000 -186.000000 105.570000 255 175 130
239.000000 -186.000000 105.570000 255 174 129
240.000000 -186.000000 105.230003 253 171 127
241.000000 -186.000000 104.380005 254 172 127
242.000000 -186.000000 104.380005 255 175 130
243.000000 -186.000000 103.870003 255 178 132
244.000000 -186.000000 104.040001 255 180 134
245.000000 -186.000000 104.040001 255 181 134
246.000000 -186.000000 100.300003 255 179 132
247.000000 -186.000000 98.430000 255 176 134
248.000000 -186.000000 98.430000 255 174 137
249.000000 -186.000000 98.260002 254 170 136
250.000000 -186.000000 98.260002 251 167 133
251.000000 -186.000000 98.090004 253 172 135
252.000000 -186.000000 98.090004 255 179 135
253.000000 -186.000000 98.260002 255 180 132
254.000000 -186.000000 98.599998 255 176 131
255.000000 -186.000000 99.959999 255 173 133
256.000000 -186.000000 102.169998 254 171 133
257.000000 -186.000000 103.360001 253 169 131
258.000000 -186.000000 103.360001 251 167 130
259.000000 -186.000000 103.360001 251 167 131
260.000000 -186.000000 93.330002 252 168 133
261.000000 -186.000000 93.330002 253 170 133
262.000000 -186.000000 93.500000 254 172 132
263.000000 -186.000000 93.669998 254 174 131
264.000000 -186.000000 76.669998 254 175 129
265.000000 -186.000000 76.669998 254 176 129
266.000000 -186.000000 9.180000 254 176 131
267.000000 -186.000000 9.180000 255 176 133
274.000000 -186.000000 102.169998 254 176 130
275.000000 -186.000000 102.680000 253 174 131
276.000000 -186.000000 102.680000 253 173 133
277.000000 -186.000000 102.510002 254 173 132
278.000000 -186.000000 102.169998 254 174 131
279.000000 -186.000000 102.000000 254 176 134
280.000000 -186.000000 103.190002 254 175 135
281.000000 -186.000000 103.360001 253 173 133
282.000000 -186.000000 103.529999 253 173 132
283.000000 -186.000000 103.700005 252 175 132
284.000000 -186.000000 103.870003 253 176 133
285.000000 -186.000000 103.870003 254 176 135
286.000000 -186.000000 104.040001 254 176 136
287.000000 -186.000000 104.040001 254 176 136
288.000000 -186.000000 103.870003 253 178 137
289.000000 -186.000000 102.340004 254 179 135
291.000000 -186.000000 99.110001 254 179 132
292.000000 -186.000000 99.110001 254 178 129
296.000000 -186.000000 78.879997 254 178 133
299.000000 -186.000000 78.879997 253 172 133
300.000000 -186.000000 78.879997 254 175 133
301.000000 -186.000000 78.879997 253 174 131
302.000000 -186.000000 78.879997 250 169 128
303.000000 -186.000000 9.520000 248 168 129
304.000000 -186.000000 9.520000 249 170 132
305.000000 -186.000000 10.710000 251 172 134
306.000000 -186.000000 10.880000 253 174 134
307.000000 -186.000000 11.220000 254 175 132
308.000000 -186.000000 11.730000 255 174 133
309.000000 -186.000000 114.580002 255 173 134
310.000000 -186.000000 117.300003 254 171 134
311.000000 -186.000000 117.470001 252 168 134
312.000000 -186.000000 117.300003 247 164 131
313.000000 -186.000000 108.800003 244 161 128
314.000000 -186.000000 109.139999 244 161 127
315.000000 -186.000000 109.139999 248 165 129
316.000000 -186.000000 109.139999 252 172 130
317.000000 -186.000000 108.800003 254 176 129
318.000000 -186.000000 108.459999 254 179 129
319.000000 -186.000000 107.610001 254 180 128
320.000000 -186.000000 106.930000 254 179 126
321.000000 -186.000000 105.910004 255 179 126
324.000000 -186.000000 107.779999 253 176 132
325.000000 -186.000000 107.779999 253 174 131
328.000000 -186.000000 -2.720000 252 173 128
329.000000 -186.000000 -0.510000 252 173 126
330.000000 -186.000000 -0.340000 251 170 125
331.000000 -186.000000 0.170000 252 169 126
332.000000 -186.000000 0.680000 253 171 127
333.000000 -186.000000 0.850000 254 171 127
334.000000 -186.000000 1.870000 254 171 128
335.000000 -186.000000 2.210000 254 172 129
336.000000 -186.000000 2.550000 254 173 130
337.000000 -186.000000 2.720000 255 176 130
338.000000 -186.000000 2.550000 255 178 131
339.000000 -186.000000 1.530000 255 177 131
340.000000 -186.000000 1.020000 255 176 129
343.000000 -186.000000 7.480000 254 173 115
344.000000 -186.000000 8.160000 254 174 115
345.000000 -186.000000 8.330000 254 176 120
346.000000 -186.000000 8.670000 255 176 123
347.000000 -186.000000 8.840000 255 177 123
348.000000 -186.000000 9.180000 255 178 121
349.000000 -186.000000 9.180000 254 178 119
350.000000 -186.000000 9.010000 254 177 120
351.000000 -186.000000 8.670000 255 177 122
352.000000 -186.000000 8.670000 254 177 120
353.000000 -186.000000 8.500000 255 179 116
354.000000 -186.000000 8.330000 255 180 115
355.000000 -186.000000 8.160000 255 179 116
356.000000 -186.000000 8.160000 255 181 117
357.000000 -186.000000 8.160000 255 182 119
358.000000 -186.000000 8.160000 255 183 121
359.000000 -186.000000 7.990000 254 182 120
360.000000 -186.000000 7.990000 254 180 117
361.000000 -186.000000 7.990000 255 180 117
362.000000 -186.000000 7.310000 255 179 118
363.000000 -186.000000 5.440000 255 177 117
364.000000 -186.000000 5.440000 255 177 117
372.000000 -186.000000 -0.170000 254 165 114
373.000000 -186.000000 -0.170000 254 165 111
374.000000 -186.000000 0.000000 255 170 109
375.000000 -186.000000 0.000000 255 175 108
376.000000 -186.000000 0.170000 255 175 108
377.000000 -186.000000 0.340000 254 175 110
378.000000 -186.000000 0.680000 255 177 113
379.000000 -186.000000 -0.170000 255 183 116
380.000000 -186.000000 -0.680000 255 187 118
381.000000 -186.000000 -0.850000 255 187 118
382.000000 -186.000000 -1.190000 255 183 116
383.000000 -186.000000 -1.190000 255 177 112
384.000000 -186.000000 -2.720000 254 173 108
385.000000 -186.000000 -2.720000 254 174 105
386.000000 -186.000000 -2.720000 254 175 106
387.000000 -186.000000 -2.720000 254 174 107
388.000000 -186.000000 -2.720000 254 175 108
389.000000 -186.000000 -2.720000 255 175 108
390.000000 -186.000000 -2.720000 254 172 106
391.000000 -186.000000 -2.720000 253 169 105
392.000000 -186.000000 -2.720000 253 168 105
393.000000 -186.000000 -2.720000 253 171 105
394.000000 -186.000000 -1.020000 254 173 103
395.000000 -186.000000 -0.510000 254 174 99
396.000000 -186.000000 -0.170000 253 174 97
397.000000 -186.000000 0.340000 254 178 100
398.000000 -186.000000 0.680000 254 179 100
399.000000 -186.000000 0.680000 254 179 101
400.000000 -186.000000 -0.510000 254 175 99
401.000000 -186.000000 -1.020000 254 173 98
402.000000 -186.000000 -2.720000 254 171 99
403.000000 -186.000000 -2.720000 254 171 98
404.000000 -186.000000 0.170000 254 170 92
405.000000 -186.000000 0.680000 254 171 90
406.000000 -186.000000 0.680000 254 172 93
64.000000 -187.000000 10.540000 244 149 60
69.000000 -187.000000 20.910000 240 144 65
70.000000 -187.000000 20.740000 236 141 57
71.000000 -187.000000 10.200000 236 142 52
72.000000 -187.000000 10.030000 237 143 49
73.000000 -187.000000 10.370000 235 141 50
74.000000 -187.000000 10.880000 237 143 53
75.000000 -187.000000 15.470000 238 144 50
76.000000 -187.000000 16.660000 240 144 50
77.000000 -187.000000 17.170000 242 144 55
78.000000 -187.000000 17.000000 245 146 62
79.000000 -187.000000 16.830000 248 150 66
80.000000 -187.000000 16.660000 245 147 62
81.000000 -187.000000 16.150000 244 145 53
82.000000 -187.000000 15.810000 245 146 48
83.000000 -187.000000 15.300000 246 148 51
84.000000 -187.000000 14.620000 245 148 55
85.000000 -187.000000 14.450000 244 149 56
86.000000 -187.000000 13.770000 244 151 56
87.000000 -187.000000 11.730000 248 155 62
88.000000 -187.000000 11.220000 249 155 63
89.000000 -187.000000 11.050000 248 153 58
90.000000 -187.000000 11.050000 250 154 57
91.000000 -187.000000 11.900001 250 154 56
92.000000 -187.000000 13.260000 249 154 55
93.000000 -187.000000 14.790000 250 154 58
94.000000 -187.000000 16.830000 251 155 62
95.000000 -187.000000 17.510000 251 158 65
96.000000 -187.000000 17.510000 251 158 68
97.000000 -187.000000 17.510000 250 154 68
98.000000 -187.000000 17.680000 251 152 70
99.000000 -187.000000 18.190001 253 153 72
100.000000 -187.000000 18.530001 254 155 71
101.000000 -187.000000 18.700001 254 156 65
102.000000 -187.000000 18.700001 253 157 57
103.000000 -187.000000 17.510000 253 156 54
104.000000 -187.000000 16.320000 253 156 58
105.000000 -187.000000 16.320000 253 155 60
106.000000 -187.000000 16.490000 254 157 63
107.000000 -187.000000 17.000000 254 159 66
108.000000 -187.000000 17.340000 254 159 69
120.000000 -187.000000 37.570000 253 156 65
121.000000 -187.000000 37.740002 253 155 66
122.000000 -187.000000 37.570000 253 155 67
123.000000 -187.000000 37.400002 253 155 68
124.000000 -187.000000 37.400002 254 156 72
125.000000 -187.000000 37.230000 254 158 77
126.000000 -187.000000 37.230000 254 158 77
127.000000 -187.000000 37.230000 254 160 76
128.000000 -187.000000 37.400002 254 161 75
129.000000 -187.000000 37.060001 255 162 75
130.000000 -187.000000 36.040001 255 162 78
131.000000 -187.000000 35.700001 254 161 79
132.000000 -187.000000 35.360001 254 161 79
133.000000 -187.000000 35.020000 254 163 82
134.000000 -187.000000 35.020000 254 163 83
135.000000 -187.000000 35.189999 255 162 82
136.000000 -187.000000 35.360001 255 163 81
137.000000 -187.000000 35.360001 255 166 80
138.000000 -187.000000 35.360001 255 167 80
139.000000 -187.000000 34.849998 255 167 83
140.000000 -187.000000 34.510002 254 167 87
142.000000 -187.000000 33.320000 254 164 82
143.000000 -187.000000 41.990002 255 164 83
144.000000 -187.000000 43.180000 255 164 85
145.000000 -187.000000 43.350002 255 165 84
146.000000 -187.000000 43.689999 255 164 79
147.000000 -187.000000 44.029999 253 162 77
148.000000 -187.000000 44.200001 253 161 80
149.000000 -187.000000 44.029999 255 163 83
150.000000 -187.000000 44.200001 255 163 82
151.000000 -187.000000 44.029999 254 163 82
153.000000 -187.000000 29.240000 254 165 87
154.000000 -187.000000 30.430000 255 166 89
155.000000 -187.000000 30.600000 255 168 90
156.000000 -187.000000 30.940001 255 169 94
157.000000 -187.000000 32.130001 254 170 98
158.000000 -187.000000 32.130001 254 170 95
159.000000 -187.000000 32.130001 254 173 93
160.000000 -187.000000 31.960001 254 174 94
161.000000 -187.000000 31.790001 254 173 95
162.000000 -187.000000 31.790001 254 173 96
163.000000 -187.000000 31.960001 254 175 96
164.000000 -187.000000 32.639999 254 175 96
165.000000 -187.000000 32.639999 254 172 95
176.000000 -187.000000 32.299999 255 196 113
177.000000 -187.000000 32.470001 255 194 111
178.000000 -187.000000 32.470001 254 190 108
179.000000 -187.000000 32.470001 254 187 111
180.000000 -187.000000 32.299999 255 190 116
181.000000 -187.000000 32.299999 255 192 116
182.000000 -187.000000 32.299999 255 189 111
183.000000 -187.000000 32.130001 255 186 107
184.000000 -187.000000 32.130001 255 188 108
185.000000 -187.000000 31.960001 255 192 110
186.000000 -187.000000 31.790001 255 192 109
187.000000 -187.000000 31.620001 255 189 107
188.000000 -187.000000 30.770000 255 184 107
189.000000 -187.000000 30.770000 254 182 107
190.000000 -187.000000 30.600000 253 182 108
193.000000 -187.000000 16.490000 254 185 111
194.000000 -187.000000 16.490000 253 179 109
195.000000 -187.000000 16.490000 254 179 110
196.000000 -187.000000 18.360001 255 180 114
197.000000 -187.000000 22.270000 254 178 113
198.000000 -187.000000 23.120001 253 177 112
199.000000 -187.000000 23.800001 253 177 112
200.000000 -187.000000 24.309999 254 178 115
201.000000 -187.000000 24.309999 255 177 119
202.000000 -187.000000 24.139999 254 174 119
203.000000 -187.000000 23.969999 254 176 121
204.000000 -187.000000 23.969999 255 179 122
205.000000 -187.000000 24.309999 255 181 121
206.000000 -187.000000 24.650000 255 182 120
207.000000 -187.000000 24.650000 255 184 121
208.000000 -187.000000 24.650000 255 188 121
238.000000 -187.000000 105.739998 255 176 128
239.000000 -187.000000 105.739998 255 175 128
240.000000 -187.000000 105.570000 254 172 126
241.000000 -187.000000 104.380005 254 171 126
242.000000 -187.000000 103.870003 254 174 128
243.000000 -187.000000 103.360001 255 177 130
244.000000 -187.000000 103.360001 255 178 132
245.000000 -187.000000 101.830002 254 178 131
246.000000 -187.000000 99.790001 254 177 131
247.000000 -187.000000 98.430000 255 175 133
248.000000 -187.000000 98.430000 255 173 135
249.000000 -187.000000 98.260002 254 171 135
250.000000 -187.000000 98.260002 253 169 135
251.000000 -187.000000 98.090004 254 173 136
252.000000 -187.000000 98.090004 255 178 136
253.000000 -187.000000 98.599998 255 178 133
254.000000 -187.000000 99.959999 255 176 131
255.000000 -187.000000 99.959999 255 175 133
256.000000 -187.000000 102.169998 255 173 134
257.000000 -187.000000 103.360001 254 170 132
258.000000 -187.000000 103.360001 252 168 131
259.000000 -187.000000 93.840004 251 167 131
261.000000 -187.000000 93.330002 253 169 132
262.000000 -187.000000 93.500000 253 170 130
263.000000 -187.000000 93.669998 254 173 130
264.000000 -187.000000 8.670000 254 173 130
265.000000 -187.000000 9.180000 254 173 130
266.000000 -187.000000 9.180000 254 173 131
267.000000 -187.000000 9.180000 254 176 133
274.000000 -187.000000 102.680000 251 175 128
275.000000 -187.000000 102.680000 248 169 127
276.000000 -187.000000 102.849998 251 169 130
277.000000 -187.000000 102.849998 252 170 130
278.000000 -187.000000 102.169998 253 172 129
279.000000 -187.000000 102.169998 254 174 132
280.000000 -187.000000 102.849998 254 175 134
281.000000 -187.000000 103.190002 253 174 133
282.000000 -187.000000 103.360001 254 178 134
283.000000 -187.000000 103.529999 255 182 134
284.000000 -187.000000 103.870003 255 183 134
285.000000 -187.000000 103.870003 255 182 134
286.000000 -187.000000 103.870003 255 181 135
287.000000 -187.000000 103.870003 255 180 137
288.000000 -187.000000 103.360001 254 179 137
289.000000 -187.000000 98.260002 254 178 136
291.000000 -187.000000 98.260002 254 176 130
300.000000 -187.000000 78.879997 254 176 133
301.000000 -187.000000 78.879997 254 175 129
306.000000 -187.000000 10.710000 255 177 135
307.000000 -187.000000 11.560000 255 176 133
308.000000 -187.000000 112.709999 255 175 132
309.000000 -187.000000 117.300003 255 174 132
310.000000 -187.000000 117.470001 254 172 132
311.000000 -187.000000 117.639999 253 168 131
312.000000 -187.000000 117.809998 249 164 131
313.000000 -187.000000 117.470001 246 161 130
314.000000 -187.000000 109.309998 246 160 129
315.000000 -187.000000 109.139999 249 163 130
316.000000 -187.000000 109.139999 252 168 130
317.000000 -187.000000 108.970001 252 170 129
318.000000 -187.000000 108.630005 251 170 130
319.000000 -187.000000 107.779999 250 170 130
320.000000 -187.000000 106.930000 251 171 128
321.000000 -187.000000 7.310000 253 172 125
322.000000 -187.000000 7.310000 251 172 125
323.000000 -187.000000 107.610001 249 169 126
324.000000 -187.000000 108.120003 246 164 128
325.000000 -187.000000 108.120003 246 164 128
326.000000 -187.000000 107.779999 244 162 126
327.000000 -187.000000 -0.510000 244 162 124
328.000000 -187.000000 -0.680000 245 164 123
329.000000 -187.000000 -0.510000 245 163 122
330.000000 -187.000000 -0.170000 244 162 122
331.000000 -187.000000 0.170000 247 163 124
332.000000 -187.000000 0.680000 248 164 124
333.000000 -187.000000 1.700000 249 165 124
334.000000 -187.000000 2.210000 249 163 124
335.000000 -187.000000 2.550000 251 165 126
336.000000 -187.000000 2.550000 253 168 128
337.000000 -187.000000 2.720000 254 173 130
338.000000 -187.000000 2.550000 254 174 128
339.000000 -187.000000 1.530000 254 175 127
340.000000 -187.000000 1.020000 255 176 127
344.000000 -187.000000 8.160000 253 170 117
345.000000 -187.000000 8.670000 254 173 121
346.000000 -187.000000 9.010000 254 174 125
347.000000 -187.000000 9.350000 254 175 125
348.000000 -187.000000 9.350000 255 176 123
349.000000 -187.000000 9.350000 255 176 122
350.000000 -187.000000 9.180000 255 176 121
351.000000 -187.000000 8.670000 255 176 121
352.000000 -187.000000 8.670000 255 178 119
353.000000 -187.000000 8.500000 255 180 116
354.000000 -187.000000 8.500000 255 181 115
355.000000 -187.000000 8.330000 255 181 116
356.000000 -187.000000 8.160000 255 181 116
357.000000 -187.000000 8.160000 255 182 118
358.000000 -187.000000 8.160000 255 184 121
359.000000 -187.000000 8.160000 254 184 120
360.000000 -187.000000 8.160000 254 182 118
361.000000 -187.000000 8.160000 255 180 116
362.000000 -187.000000 7.990000 255 178 115
363.000000 -187.000000 5.610000 255 176 115
364.000000 -187.000000 5.440000 255 174 117
365.000000 -187.000000 4.250000 254 171 119
369.000000 -187.000000 5.950000 255 168 118
370.000000 -187.000000 7.310000 255 165 114
371.000000 -187.000000 7.310000 254 163 113
372.000000 -187.000000 7.310000 253 161 113
373.000000 -187.000000 7.310000 253 164 114
374.000000 -187.000000 0.000000 255 169 114
375.000000 -187.000000 0.000000 255 173 111
376.000000 -187.000000 0.000000 255 174 109
377.000000 -187.000000 0.680000 254 175 108
378.000000 -187.000000 0.850000 254 179 109
379.000000 -187.000000 1.020000 255 187 115
380.000000 -187.000000 0.680000 255 195 121
381.000000 -187.000000 -0.340000 255 194 120
382.000000 -187.000000 -0.340000 255 187 117
383.000000 -187.000000 -0.850000 255 181 115
384.000000 -187.000000 -1.190000 255 177 110
385.000000 -187.000000 -2.720000 255 175 104
386.000000 -187.000000 -2.720000 255 174 101
387.000000 -187.000000 -0.850000 254 175 103
388.000000 -187.000000 -0.340000 255 177 105
389.000000 -187.000000 -0.850000 255 176 104
390.000000 -187.000000 -2.720000 255 175 106
391.000000 -187.000000 -2.720000 255 170 108
392.000000 -187.000000 -2.720000 255 167 108
393.000000 -187.000000 -2.720000 254 170 105
394.000000 -187.000000 -0.850000 254 173 99
395.000000 -187.000000 -0.340000 254 175 96
396.000000 -187.000000 0.340000 254 174 94
397.000000 -187.000000 1.020000 254 178 96
398.000000 -187.000000 1.530000 253 178 97
399.000000 -187.000000 2.550000 253 177 99
400.000000 -187.000000 1.020000 254 176 100
401.000000 -187.000000 -0.510000 254 175 98
402.000000 -187.000000 -2.720000 254 174 97
403.000000 -187.000000 -2.720000 255 176 99
404.000000 -187.000000 0.170000 255 175 96
405.000000 -187.000000 0.510000 254 173 89
406.000000 -187.000000 0.510000 254 171 90
64.000000 -188.000000 10.540000 244 145 46
65.000000 -188.000000 10.540000 245 146 47
66.000000 -188.000000 10.880000 244 146 47
67.000000 -188.000000 20.230000 245 146 48
68.000000 -188.000000 20.740000 247 147 50
69.000000 -188.000000 20.910000 246 146 49
70.000000 -188.000000 10.200000 243 142 44
71.000000 -188.000000 9.690001 242 142 40
72.000000 -188.000000 9.010000 242 144 41
73.000000 -188.000000 9.180000 242 145 44
74.000000 -188.000000 11.050000 243 147 47
75.000000 -188.000000 15.980000 246 150 50
76.000000 -188.000000 16.490000 248 149 55
77.000000 -188.000000 17.000000 249 150 61
78.000000 -188.000000 17.000000 251 152 64
79.000000 -188.000000 16.830000 253 155 64
80.000000 -188.000000 16.660000 253 155 61
81.000000 -188.000000 16.320000 252 154 56
82.000000 -188.000000 15.810000 253 155 50
83.000000 -188.000000 15.470000 253 156 47
84.000000 -188.000000 15.300000 253 156 52
85.000000 -188.000000 14.450000 253 157 59
86.000000 -188.000000 13.770000 253 158 63
87.000000 -188.000000 11.390000 254 160 68
88.000000 -188.000000 11.050000 254 160 65
89.000000 -188.000000 10.880000 254 159 61
94.000000 -188.000000 15.130000 255 161 64
95.000000 -188.000000 18.020000 255 162 68
96.000000 -188.000000 18.020000 255 162 68
97.000000 -188.000000 18.020000 255 158 67
98.000000 -188.000000 18.020000 254 155 65
99.000000 -188.000000 18.360001 254 154 67
100.000000 -188.000000 18.360001 254 156 71
101.000000 -188.000000 18.360001 254 158 67
102.000000 -188.000000 17.510000 254 159 55
103.000000 -188.000000 16.320000 254 159 51
104.000000 -188.000000 15.980000 253 157 56
105.000000 -188.000000 15.980000 254 156 61
106.000000 -188.000000 16.320000 254 157 62
107.000000 -188.000000 16.320000 252 156 58
120.000000 -188.000000 37.740002 253 159 73
121.000000 -188.000000 37.910000 253 158 75
122.000000 -188.000000 37.740002 254 159 76
123.000000 -188.000000 37.400002 254 161 78
124.000000 -188.000000 37.230000 255 163 79
125.000000 -188.000000 37.060001 255 163 81
126.000000 -188.000000 37.230000 255 166 83
127.000000 -188.000000 37.400002 255 168 81
128.000000 -188.000000 37.400002 255 169 76
129.000000 -188.000000 37.400002 255 169 75
130.000000 -188.000000 37.060001 255 170 77
131.000000 -188.000000 36.040001 255 170 80
132.000000 -188.000000 35.700001 255 168 79
133.000000 -188.000000 35.189999 255 167 79
134.000000 -188.000000 35.189999 255 167 79
135.000000 -188.000000 35.189999 255 167 81
136.000000 -188.000000 35.360001 255 168 81
137.000000 -188.000000 35.360001 255 172 82
138.000000 -188.000000 34.849998 255 172 82
139.000000 -188.000000 34.510002 255 170 83
140.000000 -188.000000 33.320000 255 170 84
142.000000 -188.000000 33.320000 255 169 85
143.000000 -188.000000 43.010002 255 169 87
144.000000 -188.000000 43.350002 255 168 88
145.000000 -188.000000 43.689999 255 167 87
146.000000 -188.000000 44.200001 255 168 86
147.000000 -188.000000 44.540001 255 167 85
148.000000 -188.000000 44.540001 255 165 84
149.000000 -188.000000 44.540001 255 165 85
150.000000 -188.000000 45.389999 255 166 85
151.000000 -188.000000 44.369999 255 165 83
152.000000 -188.000000 29.240000 255 166 82
153.000000 -188.000000 29.240000 255 170 87
154.000000 -188.000000 30.430000 255 172 90
155.000000 -188.000000 30.940001 255 173 91
156.000000 -188.000000 31.110001 255 175 94
157.000000 -188.000000 32.130001 255 176 98
158.000000 -188.000000 32.130001 255 177 95
159.000000 -188.000000 31.960001 255 181 94
160.000000 -188.000000 31.790001 255 184 97
161.000000 -188.000000 31.790001 255 184 100
162.000000 -188.000000 31.960001 255 183 99
163.000000 -188.000000 32.130001 255 183 97
164.000000 -188.000000 32.810001 255 186 99
165.000000 -188.000000 32.980000 255 187 101
166.000000 -188.000000 32.980000 255 186 100
167.000000 -188.000000 32.810001 255 185 100
168.000000 -188.000000 19.040001 255 187 101
169.000000 -188.000000 19.380001 255 187 99
170.000000 -188.000000 19.210001 255 186 98
171.000000 -188.000000 19.210001 255 187 101
172.000000 -188.000000 19.040001 255 190 102
173.000000 -188.000000 19.040001 255 193 103
174.000000 -188.000000 18.530001 255 196 105
177.000000 -188.000000 32.470001 255 198 111
178.000000 -188.000000 32.470001 255 194 111
179.000000 -188.000000 32.299999 255 192 112
180.000000 -188.000000 32.299999 255 193 115
181.000000 -188.000000 32.299999 255 193 115
182.000000 -188.000000 32.299999 255 189 111
183.000000 -188.000000 32.130001 254 184 106
184.000000 -188.000000 31.960001 254 183 105
185.000000 -188.000000 31.960001 255 187 108
186.000000 -188.000000 31.790001 255 190 110
187.000000 -188.000000 31.620001 255 187 109
188.000000 -188.000000 30.770000 254 182 107
189.000000 -188.000000 30.600000 254 179 108
194.000000 -188.000000 16.490000 254 178 110
195.000000 -188.000000 17.000000 254 178 112
196.000000 -188.000000 19.550001 255 179 113
197.000000 -188.000000 21.250000 255 180 113
198.000000 -188.000000 22.100000 255 182 113
199.000000 -188.000000 22.440001 255 183 114
200.000000 -188.000000 23.800001 255 182 116
201.000000 -188.000000 23.800001 255 182 120
202.000000 -188.000000 23.460001 255 181 123
203.000000 -188.000000 22.950001 255 182 124
204.000000 -188.000000 22.950001 255 184 125
205.000000 -188.000000 23.460001 255 187 125
206.000000 -188.000000 24.139999 255 191 125
207.000000 -188.000000 24.309999 255 196 125
208.000000 -188.000000 24.650000 255 201 126
238.000000 -188.000000 105.400002 255 179 128
239.000000 -188.000000 105.570000 255 179 128
240.000000 -188.000000 105.400002 255 175 127
241.000000 -188.000000 103.870003 255 173 126
242.000000 -188.000000 102.849998 255 176 128
243.000000 -188.000000 102.510002 255 178 130
244.000000 -188.000000 101.830002 255 178 131
245.000000 -188.000000 101.150002 255 177 132
246.000000 -188.000000 99.790001 254 176 132
247.000000 -188.000000 98.260002 255 174 132
248.000000 -188.000000 98.430000 255 173 134
249.000000 -188.000000 98.599998 255 173 135
250.000000 -188.000000 98.599998 254 171 135
251.000000 -188.000000 98.599998 253 170 134
252.000000 -188.000000 98.599998 252 172 132
253.000000 -188.000000 117.470001 254 176 131
254.000000 -188.000000 117.809998 255 178 133
255.000000 -188.000000 117.809998 255 178 136
262.000000 -188.000000 7.650000 253 171 129
263.000000 -188.000000 7.990000 252 171 128
264.000000 -188.000000 8.160000 253 173 131
265.000000 -188.000000 8.500000 255 176 135
266.000000 -188.000000 8.840000 254 178 135
267.000000 -188.000000 9.180000 255 181 136
268.000000 -188.000000 9.010000 255 183 137
273.000000 -188.000000 57.119999 252 177 123
274.000000 -188.000000 102.000000 250 175 125
275.000000 -188.000000 102.680000 249 173 128
276.000000 -188.000000 102.680000 251 173 131
277.000000 -188.000000 102.340004 253 173 132
278.000000 -188.000000 101.830002 253 173 131
279.000000 -188.000000 101.660004 253 173 132
280.000000 -188.000000 102.340004 253 174 133
281.000000 -188.000000 102.680000 254 178 134
282.000000 -188.000000 102.849998 255 184 137
283.000000 -188.000000 103.529999 255 187 138
284.000000 -188.000000 103.700005 255 186 134
285.000000 -188.000000 103.870003 255 185 132
286.000000 -188.000000 103.870003 255 184 132
287.000000 -188.000000 103.360001 255 184 134
288.000000 -188.000000 102.680000 254 181 134
291.000000 -188.000000 99.110001 253 176 128
292.000000 -188.000000 99.110001 254 182 129
307.000000 -188.000000 112.540001 255 175 133
308.000000 -188.000000 113.389999 255 175 131
309.000000 -188.000000 114.580002 255 174 129
310.000000 -188.000000 117.300003 255 173 129
311.000000 -188.000000 117.639999 254 170 129
312.000000 -188.000000 117.809998 253 167 130
313.000000 -188.000000 109.480003 250 163 131
314.000000 -188.000000 109.480003 248 160 129
315.000000 -188.000000 109.480003 251 163 128
316.000000 -188.000000 109.480003 253 166 128
317.000000 -188.000000 109.139999 252 167 129
318.000000 -188.000000 108.630005 249 164 130
319.000000 -188.000000 6.120000 248 164 131
320.000000 -188.000000 6.120000 249 164 129
321.000000 -188.000000 6.630000 249 165 125
322.000000 -188.000000 7.310000 248 164 124
323.000000 -188.000000 7.650000 245 162 124
324.000000 -188.000000 107.779999 242 158 125
325.000000 -188.000000 107.950005 242 158 125
326.000000 -188.000000 0.340000 241 158 124
327.000000 -188.000000 -0.170000 240 158 123
328.000000 -188.000000 -0.340000 240 158 123
329.000000 -188.000000 -0.510000 241 159 123
330.000000 -188.000000 -0.170000 242 160 125
331.000000 -188.000000 0.340000 242 159 124
332.000000 -188.000000 1.190000 242 159 121
333.000000 -188.000000 2.380000 242 158 120
334.000000 -188.000000 2.720000 242 157 120
335.000000 -188.000000 3.060000 245 159 121
336.000000 -188.000000 3.570000 250 164 124
337.000000 -188.000000 3.740000 252 167 123
338.000000 -188.000000 4.930000 252 168 121
339.000000 -188.000000 4.930000 253 169 121
340.000000 -188.000000 1.870000 254 172 123
341.000000 -188.000000 0.850000 254 172 123
343.000000 -188.000000 8.160000 254 172 124
344.000000 -188.000000 9.860000 254 172 122
345.000000 -188.000000 10.200000 254 173 124
346.000000 -188.000000 10.200000 255 175 127
347.000000 -188.000000 10.200000 254 173 125
348.000000 -188.000000 10.200000 254 171 123
349.000000 -188.000000 10.200000 254 171 123
350.000000 -188.000000 9.350000 254 171 121
351.000000 -188.000000 9.010000 254 172 119
352.000000 -188.000000 8.670000 253 173 117
353.000000 -188.000000 8.670000 254 176 116
354.000000 -188.000000 8.500000 255 177 115
355.000000 -188.000000 8.500000 255 178 114
356.000000 -188.000000 8.500000 254 178 113
357.000000 -188.000000 8.670000 254 178 114
358.000000 -188.000000 8.670000 254 179 116
359.000000 -188.000000 8.330000 254 178 115
360.000000 -188.000000 8.330000 254 180 117
361.000000 -188.000000 8.330000 255 180 118
362.000000 -188.000000 8.160000 255 178 116
363.000000 -188.000000 6.800000 255 175 113
364.000000 -188.000000 5.610000 255 173 113
365.000000 -188.000000 5.610000 255 171 117
366.000000 -188.000000 4.760000 254 169 119
367.000000 -188.000000 5.100000 254 168 117
368.000000 -188.000000 6.290000 255 169 118
369.000000 -188.000000 7.310000 255 166 114
370.000000 -188.000000 7.650000 254 163 109
371.000000 -188.000000 7.990000 254 161 111
372.000000 -188.000000 7.990000 253 161 114
373.000000 -188.000000 8.160000 254 164 116
374.000000 -188.000000 7.820000 255 169 116
375.000000 -188.000000 0.170000 255 171 112
376.000000 -188.000000 0.680000 254 173 107
377.000000 -188.000000 1.700000 254 176 104
378.000000 -188.000000 2.720000 254 180 104
379.000000 -188.000000 3.400000 254 188 111
380.000000 -188.000000 4.080000 254 197 118
381.000000 -188.000000 4.080000 254 197 117
382.000000 -188.000000 0.170000 255 190 117
383.000000 -188.000000 -0.340000 255 184 117
384.000000 -188.000000 -2.720000 255 178 112
385.000000 -188.000000 -2.720000 254 173 103
386.000000 -188.000000 -2.720000 254 171 97
387.000000 -188.000000 -1.190000 254 171 95
388.000000 -188.000000 -0.340000 254 171 96
389.000000 -188.000000 -2.720000 254 171 95
390.000000 -188.000000 -2.720000 255 172 99
391.000000 -188.000000 -2.720000 255 170 107
392.000000 -188.000000 -2.720000 255 169 110
393.000000 -188.000000 -2.720000 255 172 104
394.000000 -188.000000 -2.720000 254 176 96
395.000000 -188.000000 -0.680000 254 176 98
396.000000 -188.000000 0.510000 254 175 97
397.000000 -188.000000 1.530000 255 178 98
398.000000 -188.000000 3.060000 255 180 101
399.000000 -188.000000 3.060000 254 180 103
400.000000 -188.000000 3.060000 255 181 104
401.000000 -188.000000 1.020000 255 182 102
402.000000 -188.000000 -2.720000 255 181 100
403.000000 -188.000000 -2.720000 255 181 102
404.000000 -188.000000 0.170000 255 178 99
405.000000 -188.000000 0.510000 255 175 93
406.000000 -188.000000 0.510000 255 172 91
64.000000 -189.000000 19.210001 251 152 44
65.000000 -189.000000 19.210001 251 153 49
66.000000 -189.000000 20.230000 251 154 47
67.000000 -189.000000 21.080000 252 156 43
68.000000 -189.000000 21.250000 253 158 41
69.000000 -189.000000 22.100000 253 156 43
71.000000 -189.000000 9.010000 252 152 44
74.000000 -189.000000 11.050000 251 155 53
75.000000 -189.000000 16.320000 253 157 61
76.000000 -189.000000 16.490000 254 157 67
77.000000 -189.000000 16.830000 254 156 66
78.000000 -189.000000 17.000000 254 158 61
79.000000 -189.000000 17.000000 254 159 59
80.000000 -189.000000 16.830000 255 159 61
81.000000 -189.000000 16.320000 255 158 60
82.000000 -189.000000 15.980000 255 159 56
83.000000 -189.000000 15.810000 255 159 52
84.000000 -189.000000 15.470000 255 159 55
85.000000 -189.000000 15.470000 255 161 66
86.000000 -189.000000 14.450000 255 161 71
87.000000 -189.000000 11.050000 255 160 72
95.000000 -189.000000 18.360001 254 158 60
96.000000 -189.000000 18.700001 254 158 62
97.000000 -189.000000 18.530001 254 156 62
98.000000 -189.000000 18.530001 251 152 61
99.000000 -189.000000 18.190001 250 151 63
102.000000 -189.000000 13.600000 253 159 57
103.000000 -189.000000 14.110001 252 158 54
104.000000 -189.000000 14.620000 252 155 57
105.000000 -189.000000 14.790000 254 157 67
106.000000 -189.000000 14.790000 253 157 67
121.000000 -189.000000 37.910000 255 169 83
122.000000 -189.000000 37.910000 255 165 81
123.000000 -189.000000 37.740002 255 166 81
124.000000 -189.000000 37.400002 255 168 81
125.000000 -189.000000 37.230000 255 168 80
126.000000 -189.000000 37.230000 255 168 80
127.000000 -189.000000 37.230000 255 170 78
128.000000 -189.000000 37.740002 255 171 74
129.000000 -189.000000 37.740002 255 172 73
130.000000 -189.000000 37.740002 255 173 75
131.000000 -189.000000 37.060001 255 173 77
132.000000 -189.000000 36.209999 255 172 77
133.000000 -189.000000 35.869999 255 171 77
134.000000 -189.000000 35.360001 255 170 78
135.000000 -189.000000 35.189999 255 169 80
136.000000 -189.000000 35.189999 255 170 81
137.000000 -189.000000 34.849998 255 172 81
138.000000 -189.000000 34.170002 255 171 80
142.000000 -189.000000 43.350002 255 169 82
143.000000 -189.000000 43.350002 255 167 86
144.000000 -189.000000 44.029999 255 166 85
145.000000 -189.000000 44.200001 255 167 85
146.000000 -189.000000 45.560001 255 169 86
147.000000 -189.000000 45.560001 255 168 87
148.000000 -189.000000 45.730000 255 164 83
149.000000 -189.000000 45.389999 255 165 82
150.000000 -189.000000 45.389999 255 168 86
151.000000 -189.000000 44.369999 255 170 85
152.000000 -189.000000 28.559999 255 171 82
153.000000 -189.000000 29.240000 254 171 84
154.000000 -189.000000 30.260000 254 172 88
155.000000 -189.000000 31.110001 255 175 91
156.000000 -189.000000 31.620001 255 177 93
157.000000 -189.000000 32.130001 255 178 94
158.000000 -189.000000 32.130001 255 180 93
159.000000 -189.000000 31.620001 255 184 94
160.000000 -189.000000 31.450001 255 188 98
161.000000 -189.000000 29.070000 255 188 101
162.000000 -189.000000 30.600000 255 187 100
163.000000 -189.000000 30.940001 255 186 98
164.000000 -189.000000 32.130001 255 187 98
165.000000 -189.000000 32.810001 255 188 100
166.000000 -189.000000 32.980000 254 186 99
167.000000 -189.000000 18.870001 254 186 99
168.000000 -189.000000 19.040001 255 189 102
169.000000 -189.000000 19.380001 255 192 103
170.000000 -189.000000 19.380001 255 190 100
171.000000 -189.000000 19.380001 255 188 98
172.000000 -189.000000 19.210001 254 188 96
173.000000 -189.000000 19.040001 254 189 97
174.000000 -189.000000 18.700001 253 189 97
175.000000 -189.000000 18.530001 253 190 98
176.000000 -189.000000 18.530001 254 194 104
177.000000 -189.000000 18.870001 255 194 107
178.000000 -189.000000 19.040001 254 191 108
179.000000 -189.000000 19.550001 254 188 107
180.000000 -189.000000 31.620001 254 188 107
181.000000 -189.000000 31.620001 254 188 108
182.000000 -189.000000 31.620001 255 185 108
183.000000 -189.000000 31.620001 254 181 105
184.000000 -189.000000 31.960001 253 178 104
185.000000 -189.000000 31.790001 253 179 105
194.000000 -189.000000 18.870001 254 179 109
195.000000 -189.000000 19.040001 254 180 110
196.000000 -189.000000 19.550001 254 181 110
197.000000 -189.000000 20.570000 255 184 112
198.000000 -189.000000 21.250000 255 185 113
199.000000 -189.000000 22.100000 255 186 114
200.000000 -189.000000 22.100000 255 187 117
201.000000 -189.000000 21.930000 255 188 121
202.000000 -189.000000 21.930000 255 189 126
203.000000 -189.000000 21.930000 255 191 129
204.000000 -189.000000 22.270000 255 193 130
205.000000 -189.000000 22.440001 255 196 130
206.000000 -189.000000 22.780001 255 197 128
207.000000 -189.000000 22.780001 255 200 127
208.000000 -189.000000 22.610001 255 205 126
212.000000 -189.000000 21.080000 254 195 120
213.000000 -189.000000 21.080000 254 192 117
214.000000 -189.000000 21.080000 254 190 117
238.000000 -189.000000 105.400002 255 180 126
239.000000 -189.000000 105.400002 255 179 125
240.000000 -189.000000 105.400002 255 176 125
241.000000 -189.000000 102.510002 255 175 126
243.000000 -189.000000 101.150002 255 177 128
244.000000 -189.000000 101.150002 254 175 129
245.000000 -189.000000 101.150002 254 175 130
246.000000 -189.000000 99.790001 253 173 129
249.000000 -189.000000 98.599998 255 176 134
250.000000 -189.000000 98.599998 255 175 137
251.000000 -189.000000 98.599998 252 170 133
252.000000 -189.000000 100.639999 251 167 128
253.000000 -189.000000 117.809998 253 171 129
254.000000 -189.000000 117.809998 255 177 134
255.000000 -189.000000 117.809998 255 181 138
256.000000 -189.000000 117.809998 255 181 138
257.000000 -189.000000 103.020004 253 175 134
263.000000 -189.000000 7.650000 253 176 131
264.000000 -189.000000 8.160000 254 177 134
265.000000 -189.000000 8.500000 255 180 137
266.000000 -189.000000 8.840000 255 185 138
267.000000 -189.000000 9.180000 255 188 138
268.000000 -189.000000 9.350000 255 189 137
269.000000 -189.000000 9.350000 255 190 136
271.000000 -189.000000 56.440002 254 184 129
272.000000 -189.000000 56.779999 254 182 126
273.000000 -189.000000 57.119999 254 181 126
274.000000 -189.000000 58.650002 254 181 130
275.000000 -189.000000 102.000000 254 182 134
276.000000 -189.000000 102.000000 254 181 136
277.000000 -189.000000 101.830002 255 178 134
278.000000 -189.000000 101.320000 254 175 133
279.000000 -189.000000 101.320000 253 172 132
280.000000 -189.000000 101.660004 253 173 131
281.000000 -189.000000 101.660004 254 179 134
284.000000 -189.000000 103.529999 254 184 134
285.000000 -189.000000 103.529999 255 188 133
286.000000 -189.000000 103.360001 255 190 133
287.000000 -189.000000 102.680000 255 191 132
288.000000 -189.000000 101.489998 255 192 133
308.000000 -189.000000 6.460000 255 173 129
309.000000 -189.000000 6.460000 255 173 127
310.000000 -189.000000 5.950000 255 172 126
311.000000 -189.000000 5.440000 254 170 126
312.000000 -189.000000 5.780000 254 169 128
313.000000 -189.000000 5.950000 254 167 130
314.000000 -189.000000 109.139999 253 165 130
315.000000 -189.000000 109.480003 254 166 129
316.000000 -189.000000 109.480003 253 166 128
317.000000 -189.000000 108.800003 252 166 129
318.000000 -189.000000 5.440000 250 164 130
319.000000 -189.000000 5.440000 250 164 131
320.000000 -189.000000 5.440000 250 164 130
321.000000 -189.000000 5.610000 248 162 126
322.000000 -189.000000 6.120000 247 161 125
323.000000 -189.000000 6.120000 249 164 127
324.000000 -189.000000 5.610000 248 162 126
325.000000 -189.000000 5.440000 246 161 125
326.000000 -189.000000 0.340000 246 161 125
327.000000 -189.000000 0.340000 244 161 125
328.000000 -189.000000 0.340000 240 159 123
329.000000 -189.000000 -0.170000 239 159 124
330.000000 -189.000000 0.340000 241 160 125
331.000000 -189.000000 1.190000 243 161 125
332.000000 -189.000000 2.550000 243 161 123
333.000000 -189.000000 3.060000 243 161 121
334.000000 -189.000000 3.230000 240 157 118
335.000000 -189.000000 3.570000 238 155 114
336.000000 -189.000000 4.250000 242 158 114
337.000000 -189.000000 4.760000 246 161 115
338.000000 -189.000000 5.100000 249 163 117
339.000000 -189.000000 6.120000 251 165 119
340.000000 -189.000000 10.030000 254 168 121
341.000000 -189.000000 10.540000 254 170 122
342.000000 -189.000000 10.710000 254 170 123
343.000000 -189.000000 10.540000 255 171 123
344.000000 -189.000000 10.540000 255 172 122
345.000000 -189.000000 10.540000 254 171 121
346.000000 -189.000000 10.540000 254 172 123
347.000000 -189.000000 10.710000 254 171 123
348.000000 -189.000000 10.370000 254 171 122
349.000000 -189.000000 10.370000 254 171 122
350.000000 -189.000000 10.200000 254 172 120
351.000000 -189.000000 9.180000 254 172 117
352.000000 -189.000000 9.010000 254 172 116
353.000000 -189.000000 9.010000 254 173 116
354.000000 -189.000000 9.180000 254 174 115
355.000000 -189.000000 9.350000 254 176 114
356.000000 -189.000000 9.350000 255 176 112
357.000000 -189.000000 9.690001 254 175 112
358.000000 -189.000000 9.350000 254 174 113
359.000000 -189.000000 8.840000 254 175 114
360.000000 -189.000000 8.500000 255 178 116
361.000000 -189.000000 8.500000 255 179 117
362.000000 -189.000000 8.330000 255 176 115
363.000000 -189.000000 7.480000 254 173 110
364.000000 -189.000000 6.800000 254 172 110
365.000000 -189.000000 5.950000 255 171 114
366.000000 -189.000000 5.950000 255 169 115
367.000000 -189.000000 6.120000 254 167 112
368.000000 -189.000000 6.800000 255 166 110
369.000000 -189.000000 7.650000 254 164 108
370.000000 -189.000000 7.990000 253 162 106
371.000000 -189.000000 7.990000 252 160 109
372.000000 -189.000000 8.160000 253 161 112
373.000000 -189.000000 8.330000 254 164 114
374.000000 -189.000000 8.160000 254 167 112
375.000000 -189.000000 7.820000 255 171 110
376.000000 -189.000000 1.870000 254 175 107
377.000000 -189.000000 2.720000 254 179 105
378.000000 -189.000000 3.400000 254 182 106
379.000000 -189.000000 4.930000 254 187 109
380.000000 -189.000000 5.610000 254 193 110
381.000000 -189.000000 6.290000 254 193 109
382.000000 -189.000000 6.630000 255 189 115
383.000000 -189.000000 -0.340000 255 185 117
384.000000 -189.000000 -2.720000 255 179 112
385.000000 -189.000000 -2.720000 254 174 105
386.000000 -189.000000 -2.720000 254 171 100
387.000000 -189.000000 -2.720000 254 168 94
388.000000 -189.000000 -2.720000 254 166 93
389.000000 -189.000000 -2.720000 254 167 92
390.000000 -189.000000 -2.720000 254 167 92
391.000000 -189.000000 -2.720000 254 166 100
392.000000 -189.000000 -2.720000 254 167 107
393.000000 -189.000000 -2.720000 254 170 100
394.000000 -189.000000 -2.720000 254 172 93
395.000000 -189.000000 -0.510000 254 172 98
396.000000 -189.000000 1.530000 254 172 98
397.000000 -189.000000 4.930000 254 175 100
398.000000 -189.000000 5.100000 255 178 102
399.000000 -189.000000 4.930000 255 181 104
400.000000 -189.000000 5.100000 255 182 104
401.000000 -189.000000 4.930000 254 183 102
402.000000 -189.000000 -1.020000 254 182 103
403.000000 -189.000000 -2.720000 254 180 103
404.000000 -189.000000 -1.020000 255 177 98
405.000000 -189.000000 0.510000 254 172 90
406.000000 -189.000000 0.510000 254 172 90
63.000000 -190.000000 19.040001 255 159 47
64.000000 -190.000000 19.210001 255 160 51
65.000000 -190.000000 19.550001 255 160 57
66.000000 -190.000000 20.230000 255 160 52
67.000000 -190.000000 21.420000 255 161 45
68.000000 -190.000000 21.590000 255 160 40
69.000000 -190.000000 22.100000 255 160 41
74.000000 -190.000000 16.320000 254 157 63
75.000000 -190.000000 16.320000 255 159 70
76.000000 -190.000000 16.490000 255 160 69
77.000000 -190.000000 16.830000 255 161 63
78.000000 -190.000000 16.830000 255 163 59
79.000000 -190.000000 16.830000 255 163 59
80.000000 -190.000000 16.830000 255 163 61
81.000000 -190.000000 16.320000 254 162 63
82.000000 -190.000000 16.150000 254 160 61
83.000000 -190.000000 16.150000 254 158 58
84.000000 -190.000000 15.980000 254 159 60
85.000000 -190.000000 15.980000 255 161 69
86.000000 -190.000000 11.050000 255 161 73
87.000000 -190.000000 5.780000 255 160 73
96.000000 -190.000000 18.700001 254 157 54
97.000000 -190.000000 18.700001 253 156 58
98.000000 -190.000000 18.530001 252 154 62
102.000000 -190.000000 12.750000 254 163 59
103.000000 -190.000000 13.940001 254 162 58
104.000000 -190.000000 14.110001 254 160 63
105.000000 -190.000000 14.110001 255 162 73
122.000000 -190.000000 37.910000 255 169 80
123.000000 -190.000000 37.740002 255 170 82
124.000000 -190.000000 37.740002 255 173 83
125.000000 -190.000000 36.720001 255 171 79
126.000000 -190.000000 36.720001 255 169 77
128.000000 -190.000000 37.400002 255 169 74
129.000000 -190.000000 38.420002 255 170 72
130.000000 -190.000000 38.420002 255 171 72
131.000000 -190.000000 38.250000 255 172 76
132.000000 -190.000000 38.080002 255 172 80
133.000000 -190.000000 38.080002 255 172 82
134.000000 -190.000000 37.910000 255 171 85
135.000000 -190.000000 35.360001 255 168 85
141.000000 -190.000000 41.990002 254 163 77
142.000000 -190.000000 43.350002 254 164 79
143.000000 -190.000000 44.029999 255 164 83
144.000000 -190.000000 44.709999 255 165 85
145.000000 -190.000000 45.560001 255 167 84
146.000000 -190.000000 45.730000 255 168 83
147.000000 -190.000000 45.900002 255 167 85
148.000000 -190.000000 46.070000 254 163 83
149.000000 -190.000000 45.389999 254 164 81
150.000000 -190.000000 45.389999 255 168 86
153.000000 -190.000000 30.090000 254 170 84
154.000000 -190.000000 31.110001 254 170 85
155.000000 -190.000000 31.620001 255 173 90
156.000000 -190.000000 32.130001 255 176 92
157.000000 -190.000000 32.470001 255 176 92
158.000000 -190.000000 32.130001 254 176 90
159.000000 -190.000000 29.580000 254 178 92
160.000000 -190.000000 25.160000 254 179 93
161.000000 -190.000000 25.160000 254 180 94
162.000000 -190.000000 29.070000 255 182 96
163.000000 -190.000000 29.240000 254 181 97
164.000000 -190.000000 31.960001 254 178 97
165.000000 -190.000000 32.130001 254 179 98
166.000000 -190.000000 18.870001 254 179 98
169.000000 -190.000000 18.870001 254 184 101
170.000000 -190.000000 19.210001 255 186 100
171.000000 -190.000000 19.210001 255 186 98
172.000000 -190.000000 19.040001 254 186 96
173.000000 -190.000000 18.530001 254 184 96
174.000000 -190.000000 17.340000 253 181 96
175.000000 -190.000000 17.340000 253 180 95
176.000000 -190.000000 17.340000 253 183 95
177.000000 -190.000000 18.360001 253 183 96
178.000000 -190.000000 18.870001 253 181 99
179.000000 -190.000000 19.380001 253 180 99
180.000000 -190.000000 25.330000 253 182 99
181.000000 -190.000000 27.710001 254 184 101
182.000000 -190.000000 29.410000 254 183 103
183.000000 -190.000000 29.410000 254 181 104
